0.376924 0.643393 0.153295
0.514513 0.030219 0.298774
0.314445 0.028046 0.509125
0.281650 0.029663 0.389210
0.069731 0.028212 0.183958
0.327197 0.645356 0.415743
0.414008 0.028158 0.464149
0.515355 0.129805 0.262441
0.180438 0.645270 0.397817
0.252876 0.796444 0.136106
0.330924 0.485647 0.229422
0.453655 0.122206 0.443228
0.296218 0.577795 0.358184
0.356018 0.398551 0.306082
0.413526 0.876346 0.297861
0.263854 0.898241 0.139302
0.422256 0.028059 0.087303
0.312217 0.743056 0.386757
0.333035 0.890030 0.395364
0.038123 0.140622 0.286423
0.365506 0.112519 0.062700
0.173309 0.748771 0.204483
0.350104 0.151632 0.483663
0.092164 0.174454 0.393120
0.410452 0.755960 0.285871
0.238246 0.904799 0.399736
0.333243 0.837429 0.142281
0.249785 0.211340 0.064984
0.196250 0.774237 0.386664
0.491197 0.035293 0.209006
0.366064 0.342431 0.224981
0.261776 0.138404 0.512577
0.264245 0.540456 0.209892
0.389568 0.883236 0.200033
0.270636 0.823350 0.428847
0.297511 0.253925 0.475675
0.317790 0.027153 0.303330
0.206192 0.564164 0.309579
0.321406 0.956856 0.304357
0.128938 0.253827 0.423961
0.153607 0.846248 0.354999
0.193313 0.599295 0.226370
0.211692 0.228803 0.465521
0.214895 0.027958 0.306575
0.163642 0.741774 0.306815
0.101693 0.028684 0.406448
0.365680 0.197572 0.087527
0.447918 0.116544 0.098007
0.379967 0.769809 0.182556
0.031050 0.031747 0.270433
0.264887 0.028379 0.041800
0.204192 0.311807 0.385313
0.080706 0.135876 0.158804
0.394771 0.633288 0.350640
0.098133 0.028026 0.100300
0.280899 0.393641 0.183303
0.470231 0.028245 0.392265
0.222236 0.028503 0.487744
0.383261 0.801633 0.378645
0.230377 0.312396 0.169330
0.148053 0.272170 0.124827
0.273786 0.658315 0.143585
0.268626 0.297712 0.082318
0.413917 0.216501 0.438351
0.312646 0.316834 0.380173
0.176209 0.126137 0.480705
0.116480 0.312461 0.349363
0.439312 0.644141 0.274620
0.152633 0.030567 0.238395
0.467814 0.177386 0.181097
0.331145 0.502996 0.315868
0.213803 0.435571 0.229448
0.142288 0.657633 0.273292
0.437497 0.265485 0.169807
0.179775 0.882505 0.169999
0.397451 0.311966 0.308669
0.153139 0.311550 0.220497
0.147916 0.108153 0.080585
0.354950 0.580235 0.244110
0.248581 0.027733 0.218922
0.491002 0.112748 0.359708
0.217241 0.472099 0.318546
0.331388 0.696361 0.220243
0.193939 0.935746 0.319243
0.120756 0.840253 0.271880
0.387132 0.030261 0.228794
0.395269 0.312320 0.412629
0.360248 0.312429 0.121743
0.209704 0.029841 0.113624
0.067852 0.222623 0.300579
0.453948 0.236794 0.362002
0.277098 0.399603 0.367677
0.486554 0.246696 0.276325
0.231428 0.953671 0.226302
0.328770 0.030922 0.150349
0.089379 0.225687 0.200971
0.244876 0.696325 0.341533
0.329025 0.690247 0.312782
0.253112 0.665029 0.246075
0.421145 0.030720 0.310651